-3.256061 31.573290 911.348633 
-9.153800 38.960785 896.995239 
26.589197 32.063438 881.900696 
1.569898 14.288538 918.318542 
11.980410 32.202553 878.613831 
0.250149 46.085674 873.889893 
-2.698756 40.644100 880.562561 
-15.746824 57.606594 864.801208 
-12.807409 36.112808 888.719971 
-13.862924 44.822350 877.824463 
-8.164343 41.997288 895.101746 
13.701411 36.518822 866.802551 
25.171442 12.801925 891.767273 
-3.711439 39.946556 882.183777 
3.303625 25.895727 893.014160 
-1.238556 25.675291 912.891541 
5.272972 13.404376 914.489258 
20.384161 29.531565 872.863831 
-9.456528 28.247234 896.535034 
-10.686395 64.593422 858.692749 
9.793295 40.655602 870.001038 
-8.009520 35.301384 901.281677 
-4.381903 25.820328 895.567993 
9.480634 16.537832 899.757080 
12.065522 37.549843 865.572449 
7.776690 38.298592 874.552979 
25.459108 41.111038 923.301819 
3.425348 44.499638 878.666748 
-7.776599 28.700367 893.908386 
26.744270 24.476551 882.423340 
16.301720 45.892750 863.176453 
22.301304 35.284348 923.491943 
-0.725837 23.616514 894.624329 
-7.291383 58.663235 863.492249 
25.294683 44.547695 924.855713 
-7.060717 46.085083 872.469299 
13.155830 50.572567 857.452148 
12.557210 51.904011 856.577942 
1.214836 51.747639 853.624084 
10.959613 17.563131 896.331482 
4.725116 33.789192 884.171387 
-0.409918 13.619748 921.799255 
19.002935 33.909378 924.298340 
5.539837 19.252703 897.124878 
2.706215 13.375227 924.567139 
29.410570 21.796814 886.393066 
-15.965650 52.579395 864.576355 
19.199991 46.061733 865.081543 
5.401336 39.083302 882.664185 
14.704734 35.756248 867.547546 
19.613798 28.230692 921.368530 
28.917608 48.802135 923.728149 
19.201277 20.987265 886.805969 
7.565603 13.476521 913.772034 
19.294891 14.739996 891.556519 
-16.633558 57.366089 867.010864 
-3.059320 56.056622 866.994873 
32.492634 16.501583 908.907410 
1.397997 46.044956 866.022095 
-17.987658 62.643848 864.832397 
13.403540 29.025103 881.303162 
36.408676 23.808098 912.094116 
-8.058590 60.944130 862.371338 
0.099289 19.720078 914.768860 
21.012617 28.539244 882.866577 
15.179399 15.516642 919.337891 
-16.472321 46.132458 883.934387 
25.171305 42.604317 923.904907 
-6.014539 29.273743 904.060242 
-2.873218 68.102791 855.868591 
-7.500383 35.903461 902.311523 
14.203166 51.917618 860.293518 
4.937848 38.272320 882.685547 
-17.745119 54.510559 868.500610 
34.539841 20.592377 907.319458 
-6.931461 26.779995 895.594482 
-9.529459 41.365635 894.165710 
19.155159 32.899464 872.723206 
-2.144711 33.110527 887.247253 
17.100395 17.763241 888.534912 
35.863007 20.061827 911.570557 
-14.210488 58.670654 862.432312 
21.061241 39.698891 872.411743 
-9.479444 28.098289 898.283203 
1.560238 52.053322 854.570679 
25.062037 39.985596 921.396362 
26.236677 48.019581 924.437866 
-9.258822 42.813015 877.543091 
11.347865 27.831337 884.169189 
-5.067212 59.584198 861.836487 
31.248178 15.705184 890.658752 
-6.998274 38.499516 902.166687 
-2.908855 65.524559 854.342346 
22.909224 50.654610 925.331482 
-0.640731 53.366188 854.428955 
21.649837 21.134327 880.046021 
31.265242 50.570690 922.154846 
-0.776260 58.342869 852.613647 
15.664232 43.078411 863.305969 
17.556059 34.523487 868.777344 
7.582962 24.480038 892.447205 
3.947854 25.483175 893.312134 
-7.467901 35.686691 902.490540 
3.137854 32.888157 888.725830 
17.105173 14.966342 893.292664 
-5.615497 40.544891 879.161560 
11.300859 17.242161 896.786072 
-10.757268 48.610710 870.994629 
-7.087098 31.377548 902.416382 
3.078677 38.907963 879.727417 
21.706919 40.266132 875.087585 
2.938564 14.146582 921.896484 
12.898807 16.325619 893.767944 
15.017763 15.802119 907.027405 
-2.893068 59.790691 861.319519 
-0.870081 28.488621 890.977478 
-2.468993 68.029938 852.748108 
6.937371 48.014805 857.923828 
-8.001678 26.800667 903.233826 
14.422003 17.917799 890.915161 
21.651993 38.785782 873.438660 
-3.912973 62.335835 859.716003 
26.679455 12.322971 892.102234 
14.015931 50.558113 859.793640 
-4.258834 66.672218 861.104004 
-9.317548 59.283493 862.454956 
34.625282 16.321648 891.113831 
-0.731997 21.943413 916.611511 
-6.587288 46.826138 871.913818 
-10.737369 35.265327 887.355713 
25.225874 28.294039 879.511963 
22.335577 17.683867 916.075684 
-10.705691 37.019661 893.654785 
-1.682780 59.200916 851.930298 
-18.275156 51.745747 870.328918 
29.125210 28.672844 884.521973 
10.123886 31.930138 881.699036 
15.487563 43.064102 864.670044 
2.038832 58.998398 853.686340 
-9.382933 46.174881 890.539490 
7.301198 14.936230 905.239868 
5.658613 35.450268 882.276062 
19.441828 27.806660 921.392700 
19.911436 18.856169 883.101929 
15.655652 48.903416 861.169922 
22.577997 22.861475 878.280762 
26.024078 15.631879 885.963745 
9.114813 45.054108 863.667419 
-0.745606 33.488255 886.998169 
3.780987 13.709857 913.801880 
32.170662 41.710838 919.703430 
3.922965 43.962532 863.229065 
10.415892 36.699642 865.766541 
17.374247 45.658546 868.503113 
-7.355118 38.871094 900.924927 
28.205784 34.185036 892.036133 
4.404396 41.853752 880.739136 
29.463020 14.963502 909.352234 
0.442679 44.866032 876.019775 
-4.942328 47.607071 872.111328 
-4.772496 44.587997 875.258057 
-3.572305 46.355164 874.450500 
27.359861 11.155078 894.507385 
21.804197 40.420643 929.725647 
10.527071 43.997021 861.313416 
20.810658 37.209724 927.695251 
24.836176 26.862762 916.699158 
29.450409 25.370226 886.332947 
36.636600 20.008274 908.741272 
-13.039711 42.158318 887.450439 
9.379994 21.036325 926.479736 
23.758198 29.423773 877.513062 
15.949949 35.360706 867.770447 
27.038841 20.206799 885.212097 
-3.648827 62.650726 859.448364 
-0.673930 48.832653 862.346436 
27.119419 16.219820 885.552551 
6.796714 36.534554 894.556580 
18.864708 28.300486 883.014526 
-3.285274 57.598160 863.669312 
-11.901578 52.782482 864.545349 
9.138911 18.043270 897.600830 
-8.438726 38.526737 899.012512 
13.406787 14.814074 896.999573 
-2.044920 61.679062 858.934265 
-2.858933 70.755676 853.159241 
8.520415 13.733139 921.047363 
2.913370 45.511299 868.438110 
26.893251 44.676872 922.544373 
-1.443318 53.560848 869.151001 
-15.978173 61.209427 864.408142 
-11.083811 52.784794 863.616089 
13.236619 26.832485 930.237183 
6.988232 13.542648 915.193237 
22.199276 16.887974 888.954407 
-5.944248 36.806293 906.678162 
3.036469 23.763319 894.487915 
20.914955 32.703487 927.790833 
6.704117 40.192657 873.086304 
30.961584 32.462723 914.969666 
3.127524 43.331581 867.402405 
30.121113 48.299282 924.193115 
8.559609 37.106522 873.607605 
5.348365 55.846973 854.887024 
20.870583 34.626297 872.101074 
8.194596 29.353752 889.114624 
22.769970 29.561514 876.279358 
12.259266 18.624668 892.068970 
3.257596 47.346565 859.551758 
18.581314 32.994732 924.613708 
-4.903984 21.652180 902.255432 
29.362743 28.475508 884.801575 
14.550017 28.728191 881.715271 
21.626509 40.732647 925.833496 
0.832638 24.008768 895.569763 
25.051134 48.307640 927.350037 
-1.870845 58.424206 866.511597 
27.771820 28.398825 914.286499 
19.173050 13.915412 893.408752 
5.115307 41.038132 876.731018 
9.412060 47.295856 858.919617 
29.594088 51.533447 922.101624 
15.244027 46.063442 867.114441 
6.200029 47.863499 858.783875 
0.567023 34.461918 886.569153 
30.805765 18.228609 889.316772 
-15.769505 57.728142 864.492493 
29.438049 15.164200 909.640381 
-7.259449 43.553452 874.910339 
25.307011 12.003047 893.416687 
8.618476 33.398113 881.802979 
-8.329292 41.012901 877.493530 
4.682937 37.868259 880.388489 
22.890024 37.360039 876.052368 
16.656843 13.534030 898.872070 
-10.773504 38.306503 894.491821 
31.701483 38.145058 917.099365 
-1.533652 59.621952 862.619507 
-14.808745 41.313965 884.109131 
19.608715 45.598801 867.148621 
-2.712384 50.348900 871.398132 
26.196819 32.171143 880.453003 
16.471516 22.003872 881.926636 
0.439458 33.346081 887.070190 
-6.357122 30.886213 906.408569 
-16.141399 52.156666 865.156372 
14.733197 15.839811 894.662109 
24.043795 24.873972 880.389404 
-15.172436 51.879280 881.351318 
-8.444277 43.606659 874.276917 
20.926340 41.386497 873.745605 
21.585489 35.451962 930.481201 
6.514073 41.271141 876.512451 
1.322587 31.363476 889.049622 
30.793705 49.850166 924.666565 
1.970147 20.444614 898.548218 
-0.221991 53.750072 868.919800 
15.138439 42.544750 862.779785 
34.578983 11.886469 899.490540 
22.496817 36.199993 924.975342 
28.457977 41.090649 920.997620 
21.047165 39.608273 926.816406 
27.610832 47.348671 923.158875 
7.796214 44.274891 861.088867 
-2.673474 64.159569 855.518677 
-0.954481 38.744984 882.491882 
8.470901 37.056534 874.254639 
12.050192 44.586773 860.925476 
22.767784 28.522573 883.235229 
3.461825 51.420818 852.951233 
-8.818808 46.444702 890.656677 
24.314945 50.404915 928.026672 
3.545979 46.963394 858.646790 
26.793087 35.993870 920.583069 
6.419919 17.081472 899.579163 
0.251154 19.177980 899.915833 
-4.209063 54.506088 868.063293 
4.277453 28.446014 890.861572 
10.034169 39.235207 864.279785 
-5.627834 46.969917 874.403015 
25.613279 38.549007 920.794556 
-15.310016 48.514721 870.059448 
24.827787 17.709909 883.632629 
39.491905 11.804825 894.167969 
8.848904 43.177147 861.877319 
-13.606432 54.324928 864.733704 
25.255726 22.726110 879.454285 
15.445930 15.107740 918.294861 
25.174070 21.311743 880.534912 
25.082001 30.544847 916.814331 
4.740591 29.868158 888.946655 
7.212755 13.709489 909.025024 
-0.991732 50.503685 870.815796 
10.713040 28.906652 885.483887 
-1.813630 54.716366 868.075500 
32.594772 40.209103 924.234192 
4.042120 42.027740 876.871460 
-5.475800 45.331928 874.008240 
12.219563 32.971836 877.872131 
31.256584 22.948286 893.303772 
10.611901 19.978403 928.165710 
0.382911 51.521790 865.390442 
-2.735844 52.007713 870.298523 
-1.932474 56.873150 867.359558 
-17.662878 47.233532 884.344666 
19.022358 43.954693 869.297546 
22.453369 52.417625 925.230957 
16.522869 43.223125 864.253479 
24.331955 39.675270 926.831665 
22.106310 38.044781 873.763184 
26.980349 30.266413 878.866211 
21.677540 37.920338 929.838806 
-4.951632 51.587418 869.194214 
18.236526 16.976244 918.894287 
-2.255433 51.493809 871.865601 
17.325760 40.249695 866.994324 
13.879454 29.429367 873.432678 
4.454847 35.007259 885.799744 
16.027252 40.699596 864.512390 
-18.070469 51.718758 870.106567 
0.110983 15.839278 920.516724 
17.930265 14.770176 914.953369 
26.474771 45.295982 922.954407 
-0.752396 51.419792 856.743713 
28.620913 25.247684 886.207031 
30.616486 26.355530 889.534729 
35.410774 12.248724 897.967773 
7.555898 27.391626 890.632507 
0.502753 31.801508 889.174194 
9.239149 42.550659 862.433960 
5.496821 41.854759 862.726624 
-13.585038 43.643967 885.133484 
-3.172998 34.100662 885.914001 
17.729414 29.462706 927.746826 
31.211761 26.885073 884.975098 
-18.325392 57.992252 868.556580 
-5.729279 41.273216 878.245483 
31.125580 22.527666 884.890930 
29.020466 40.870987 920.718201 
-8.496722 49.274174 871.096069 
22.893181 29.889849 876.083618 
-6.300138 50.771172 868.892944 
-0.029321 16.272049 920.478333 
28.807453 35.130981 917.826477 
-4.019121 29.829212 907.882813 
11.936061 30.341457 880.438599 
14.425475 47.349743 860.405457 
-16.417311 59.334213 865.231567 
17.164480 39.006878 866.873352 
-8.750401 34.634167 899.012756 
-3.790984 27.467741 908.270081 
9.122004 51.190887 854.430115 
17.667976 48.840145 863.795044 
21.585165 39.637489 870.524353 
-15.798480 49.291065 872.405701 
26.753115 30.601933 881.370605 
36.260815 13.639636 904.108215 
7.909615 38.573376 876.959717 
-3.626431 62.213840 862.663696 
0.530145 21.074627 896.784058 
26.168013 20.601555 881.340027 
-0.422875 33.274387 887.137268 
23.588663 36.930115 874.797607 
-16.461264 45.989761 885.013000 
9.340708 42.625935 866.824402 
-15.176667 49.981861 869.805786 
20.945719 12.366687 899.957947 
-2.027020 62.513496 860.128357 
18.125343 30.764366 871.528625 
-3.953294 47.428661 874.566589 
-6.470314 55.822342 865.023804 
30.796537 21.501621 887.787598 
-4.059053 33.278809 909.761414 
7.665577 27.281483 889.015259 
-10.671992 37.901073 893.912903 
-2.491029 18.338329 903.318848 
-0.344468 32.321663 888.893677 
-4.252443 23.336529 890.094116 
-13.634026 60.686951 859.886963 
-0.908674 56.952782 866.314575 
10.042170 33.671810 877.773438 
9.012881 19.804241 927.961060 
1.027831 49.662666 868.657471 
-7.517344 60.959534 861.907654 
38.514984 11.695062 892.879639 
22.778633 37.724876 876.734314 
23.117901 52.263252 924.986877 
2.114332 13.893121 921.762939 
13.476313 22.315208 886.511902 
9.410197 24.111408 889.493164 
5.401727 46.284485 860.423889 
26.402847 33.142166 880.838196 
24.424622 34.234409 919.049133 
32.833878 37.406574 916.568542 
-1.377749 52.550785 867.520874 
-13.897511 45.410820 876.262939 
27.134354 53.026260 921.289856 
2.048639 47.845062 875.699402 
10.795360 15.125813 917.090332 
-7.258081 33.614826 902.437195 
19.598505 20.992502 879.790466 
-15.740925 44.424698 882.049622 
23.619040 45.928474 929.310364 
-3.102397 35.596024 884.976563 
33.552677 24.865166 909.593750 
36.413960 20.170214 908.078186 
33.291603 27.409962 912.367981 
34.689083 16.805317 892.390381 
21.508278 13.653008 892.114929 
-3.228302 70.803093 854.096863 
-4.849982 39.390564 880.804626 
-16.384531 48.316772 875.794739 
19.970034 15.126702 914.102051 
12.552674 44.123447 861.433655 
7.678113 35.249260 882.137695 
-1.989255 17.000992 905.191895 
18.444244 30.512920 927.944702 
14.235642 42.770149 862.724548 
-5.759701 38.592205 902.339661 
24.253040 35.846313 880.094788 
22.571743 34.791233 873.855347 
1.252866 22.089552 896.057983 
22.648167 44.830002 924.251831 
-1.351655 45.210381 876.303467 
-1.348613 15.893577 919.057190 
-6.514186 51.365101 866.828979 
35.821491 21.093523 912.370056 
-6.057092 22.961458 905.027283 
-7.187644 32.700836 908.849915 
-13.674133 43.504902 884.886230 
13.437031 51.170815 858.871948 
0.830941 14.723808 919.951111 
28.394388 47.178295 922.825500 
14.629673 28.380264 874.338623 
12.002540 14.579642 903.646790 
21.708872 39.675720 926.827515 
-11.638931 35.573261 899.481873 
5.925675 38.416431 883.018799 
31.319122 36.982716 917.205139 
-7.567648 43.639202 874.614136 
-0.156657 35.389359 885.554382 
-9.095909 57.762123 863.292297 
-18.479521 61.425854 866.945801 
27.442427 14.037644 887.911377 
3.779812 13.688035 913.359070 
4.224971 44.390808 860.016785 
12.826024 18.681835 891.536133 
1.529228 37.805538 884.968689 
-7.306684 65.383514 860.357544 
-18.200319 59.083591 867.589844 
0.915927 52.566769 855.436401 
-0.927137 56.624439 862.957153 
-0.895446 49.312794 863.473755 
27.129391 35.759010 919.800415 
14.971246 43.762535 862.411621 
0.364069 32.018066 889.036987 
35.467350 12.777223 893.296570 
6.672645 34.489674 885.979797 
-13.249198 56.856281 864.609802 
29.548149 26.124352 885.509216 
2.632974 12.761613 921.884827 
-15.182857 60.399109 862.899841 
-18.629519 61.639492 866.802734 
-15.577633 48.291752 869.833740 
3.464919 13.003352 923.266357 
24.064301 31.930340 876.802368 
7.637974 14.656041 906.157898 
16.525061 47.879913 865.687256 
-1.894703 35.314964 885.327026 
23.273817 36.835194 872.932312 
-8.686234 32.804829 898.462341 
4.607455 49.872852 855.238525 
22.556158 37.708717 930.948181 
8.990573 48.131187 857.690857 
12.952302 18.331467 924.188232 
-0.748573 22.933407 914.250061 
14.656645 47.764179 860.408997 
20.024082 41.043098 928.462158 
-15.160836 51.117382 865.857544 
-12.693381 60.398388 860.395264 
-13.274944 64.231079 857.768250 
-3.201447 45.845547 875.131897 
29.003695 42.749760 921.475952 
19.513390 32.730198 872.914063 
-1.657826 46.760315 875.390259 
-9.591936 40.642822 896.312256 
35.750153 15.429457 902.043030 
14.854757 48.396915 860.222351 
7.296031 20.574114 895.081726 
0.761953 13.251161 920.891541 
14.155427 39.892864 872.121460 
4.299290 34.683113 883.504761 
10.967349 24.976019 887.089600 
-13.040390 43.939651 886.890991 
4.061541 30.766897 889.434875 
11.350721 15.091089 921.501160 
-2.176635 64.618515 856.730652 
17.941217 45.816971 865.218384 
2.688166 24.192217 894.690491 
-14.870687 47.498573 883.740723 
-2.446264 64.230881 857.993652 
26.637318 52.795788 922.870972 
-17.547260 59.555939 866.595764 
31.952110 44.819248 922.193665 
-4.313341 41.629868 878.870789 
-2.161474 59.177204 864.999817 
-11.171834 57.989578 860.810913 
-14.584401 47.608803 871.112976 
13.869594 24.413603 884.141846 
-9.010048 61.178516 860.181641 
3.468199 56.939404 855.882324 
21.345942 38.449352 869.871399 
-6.720834 38.462292 883.262817 
-6.228878 66.130005 859.834167 
-0.171057 56.063164 853.336304 
-12.703831 43.346581 887.752747 
-8.786596 60.018047 860.654358 
15.624325 51.088707 862.194824 
15.916170 30.126511 927.304382 
2.028157 40.187416 880.979736 
36.458294 25.774174 912.481079 
-5.775722 25.070562 897.396667 
2.984344 44.791523 860.271057 
-13.718171 37.230995 888.249023 
9.814619 14.983465 922.335571 
-2.079759 61.275337 856.218750 
27.308098 44.064915 922.458008 
29.587589 27.604530 889.794128 
20.824759 40.563515 874.250000 
29.397198 20.889772 886.723328 
-0.707549 29.315025 891.551025 
24.875483 9.737348 887.103760 
34.643040 32.093468 912.227112 
6.295442 39.895226 870.858093 
13.625389 38.980286 865.173035 
23.214823 38.167305 923.506592 
-3.282475 25.879351 908.840698 
27.468025 13.860769 888.150085 
11.212873 24.524988 887.351013 
31.839241 40.666096 915.850403 
7.980964 26.418501 889.767944 
24.215128 51.801842 924.419006 
22.197426 12.097438 897.695801 
-7.812576 26.795786 905.050171 
-17.832453 46.668308 885.437561 
3.264059 16.376186 902.437195 
-5.418200 54.558609 867.177673 
33.278381 10.600142 895.102356 
0.479080 54.985462 865.109741 
10.032775 16.670097 895.590271 
-2.688891 59.777229 858.524963 
14.218054 16.395365 893.288879 
2.626962 47.249191 859.887634 
6.096457 53.613438 854.266907 
9.201351 20.757952 893.341003 
1.133974 57.242905 853.648621 
28.059992 50.939186 922.555908 
-7.630874 47.853512 870.148132 
23.571478 40.656998 923.327209 
0.666675 43.437893 878.338928 
36.477566 20.051588 909.602844 
28.684055 47.441845 923.633728 
13.163465 51.784775 857.257446 
31.853848 44.112614 919.112915 
4.538990 42.939186 874.184937 
4.225349 42.458698 862.767212 
8.556899 17.255035 926.218140 
23.433020 37.395641 922.535889 
-13.184465 37.780987 894.247925 
-3.517754 58.339626 862.354126 
5.888255 41.220013 863.273132 
0.594806 47.192013 862.832031 
17.338310 47.085823 864.125122 
25.383097 49.430241 926.953674 
-0.258296 57.404629 852.969482 
22.910189 37.886509 929.080078 
-1.403276 21.048414 913.148804 
17.943579 45.254787 867.804016 
31.999794 23.474182 886.990295 
-14.768039 56.862221 864.787598 
-17.596001 61.510029 865.704468 
26.032991 26.959032 917.941467 
-3.609339 29.735922 908.455139 
18.546247 28.946676 928.971741 
-1.960657 60.811077 853.003540 
26.421150 16.938873 884.708984 
30.060917 40.998875 919.584106 
36.301373 24.475719 912.691650 
-9.459819 30.241596 893.577332 
-1.256813 15.242041 919.180603 
10.113729 40.673210 863.696899 
-7.355738 61.864758 861.625122 
5.443395 46.153759 859.635742 
36.233818 11.278912 900.065369 
26.248957 28.984426 918.252563 
22.461470 27.516443 875.126770 
31.871145 44.431786 919.681335 
20.537201 40.321785 927.316345 
-7.068642 32.082630 889.601807 
-11.132800 34.033863 898.818298 
36.516800 19.715103 909.316528 
26.306229 52.505955 925.818054 
34.560867 35.010918 918.129395 
26.762571 52.793709 928.530090 
-8.612486 30.316315 892.310059 
-1.326447 51.533634 870.904541 
10.073679 20.298567 894.991333 
-1.821109 26.947868 911.577271 
-2.218917 56.240105 855.731750 
19.605928 34.577763 870.762085 
-13.046385 49.092918 884.944031 
-17.866417 52.586300 866.435242 
17.332684 35.993668 867.821533 
13.048976 48.155296 860.146179 
22.395655 16.088736 886.206360 
22.078230 36.379570 925.677551 
2.975084 22.798052 895.397888 
24.531773 34.584141 878.949097 
-11.196389 34.460289 899.007568 
24.881525 37.743309 924.985962 
-9.111854 51.864017 866.602051 
-8.234722 38.757923 898.778564 
14.557613 40.188606 864.659424 
16.105703 46.294292 862.078735 
12.709856 23.809010 886.015930 
23.553503 43.886410 928.977661 
6.560825 44.621857 860.808899 
36.020935 12.600289 901.246582 
32.334503 23.006174 890.671326 
2.320465 49.639549 856.676880 
-0.915177 23.018929 915.398865 
20.444601 35.114162 930.279419 
14.504496 23.325382 926.692322 
31.069958 17.115126 889.069580 
-10.346973 31.147039 900.736389 
7.773135 40.479977 862.957703 
-18.752813 52.220535 871.663696 
-17.686993 48.744709 879.780945 
8.568918 24.623795 889.212952 
10.360218 13.996849 909.238831 
15.487562 51.448597 860.713135 
0.499535 21.275595 896.579346 
1.031677 45.336452 864.949402 
-2.264463 64.562149 851.873779 
-1.771688 24.863590 914.534851 
23.732027 51.043358 924.696045 
-3.008328 65.757431 853.015564 
-17.586828 60.737946 865.848816 
0.251602 19.584333 917.528259 
-3.494408 41.157192 880.956238 
-5.466227 49.112431 870.380371 
-0.680838 29.165869 890.399597 
28.239418 34.825024 918.267517 
19.632431 28.246092 924.507507 
-16.228100 56.997746 867.636597 
11.882587 21.271353 889.279419 
25.729368 23.474453 879.333984 
25.657915 36.022289 922.977356 
9.494526 29.381643 884.734070 
23.688499 27.176519 876.321533 
5.546775 15.969002 922.982849 
25.515245 30.335815 878.766052 
-19.867186 55.218803 872.996277 
-2.956530 63.685631 861.651611 
13.949963 40.748398 864.021362 
20.551125 32.252003 872.397522 
34.840633 10.306897 894.415100 
18.220098 36.781857 869.065796 
-18.133081 62.249195 865.544373 
-2.039146 57.590431 866.887634 
2.871335 56.713402 855.922302 
-5.407279 66.473190 859.650269 
2.408952 47.398815 876.456482 
2.252251 57.797680 853.477478 
-8.737258 42.847424 893.966553 
4.335076 22.313356 895.274353 
18.999735 16.988356 886.465454 
19.749144 53.545597 903.248230 
-0.217387 54.507893 867.698059 
-7.009995 40.050373 878.820251 
-5.358066 50.356972 869.592102 
0.624195 40.612103 881.761536 
-15.197291 44.298756 880.663696 
19.959324 42.651764 928.942932 
3.764735 52.329018 852.988892 
20.028999 33.669777 879.605774 
19.468376 57.386028 859.706421 
-0.842896 47.597984 873.643860 
-1.693492 47.463696 874.090454 
7.140229 34.130829 883.143066 
-4.185187 34.734501 887.428772 
26.767895 29.308735 917.823547 
-5.084645 22.445143 900.563477 
27.454199 11.159978 897.617737 
26.974636 43.558174 921.998352 
-12.528678 48.261318 871.098877 
-6.361295 61.104424 862.813110 
25.726128 50.947128 926.237671 
-17.447233 53.492729 874.794800 
9.087565 26.671381 887.946838 
-4.517024 67.722015 860.304504 
16.089594 29.834473 924.283813 
33.120094 44.459408 923.797119 
27.141878 32.364124 918.626526 
33.110378 37.438831 915.798401 
1.815603 60.667107 854.585938 
-19.317263 54.331802 875.621948 
11.013506 21.261164 927.669373 
17.990875 17.787003 886.208618 
18.769524 38.071762 869.592224 
21.565136 34.031807 872.949829 
-0.775807 30.040323 890.974243 
0.539212 33.054806 888.174683 
3.231915 19.741899 898.766418 
-14.706833 46.596046 875.829224 
-14.740007 39.056305 887.868469 
5.085659 42.230274 875.033386 
33.431461 30.646875 912.587036 
-0.104331 18.349146 919.078064 
26.280931 29.224819 915.866211 
-9.263134 27.806646 900.887817 
2.056399 55.740273 856.019043 
-7.699460 33.521751 888.166870 
8.414970 36.228062 867.399109 
-15.059829 50.437305 866.384949 
24.407930 37.730618 927.230225 
-2.290993 28.082487 914.166687 
33.939270 34.588490 916.424805 
12.810898 14.991032 899.672485 
-11.914648 60.579441 862.687439 
30.338924 25.894396 886.538635 
-14.330336 43.917408 879.875916 
11.922124 15.265846 915.803711 
31.487612 46.939758 922.045105 
26.710602 14.178222 890.281372 
-16.442688 45.220146 882.819214 
11.586166 16.564701 898.562317 
17.298685 26.456011 873.891785 
5.501734 39.054680 882.604614 
17.593468 46.602711 865.362671 
-9.604450 61.699562 859.132263 
-7.141359 37.470093 902.309875 
19.478729 42.400280 866.149902 
21.580439 15.498161 913.084595 
-9.442296 38.342941 896.702515 
16.829929 49.498165 863.120361 
24.910501 31.461025 878.243896 
-0.952818 21.555300 912.123779 
23.212437 31.595493 919.770325 
6.104244 50.810406 851.766357 
-11.277905 43.523472 876.538696 
30.309242 24.494308 913.897339 
-0.951685 23.483030 914.433960 
24.804331 42.974751 922.696594 
24.380749 34.553288 874.856445 
13.966208 37.800404 866.048340 
0.361690 17.347361 918.479736 
17.564541 36.884014 869.091370 
22.334089 39.742081 874.009216 
10.540612 49.622124 856.915771 
36.132191 17.772280 906.002380 
26.700935 11.210434 896.483582 
-11.952954 61.177723 859.728271 
29.517851 42.709568 921.129639 
-10.016210 57.983589 862.340698 
-4.517056 64.430969 861.560120 
-5.243975 34.201756 884.614136 
18.147860 45.393280 866.509460 
28.375837 45.875362 922.218079 
28.936399 30.109896 915.951233 
-0.961045 22.233952 916.944702 
25.239470 47.159328 925.677979 
-1.736839 59.904984 860.602966 
25.932859 21.823376 883.529846 
24.298449 45.741554 927.623535 
-8.754910 32.376858 889.602600 
11.851385 35.040386 867.200317 
25.583118 33.472683 880.037720 
30.168812 49.913086 921.018311 
13.282970 25.465307 886.859558 
3.636016 52.212246 852.475586 
-0.356477 19.528051 900.916016 
-11.894209 45.130093 874.718811 
-8.754047 29.152704 894.269897 
-5.628150 46.327221 872.962341 
14.440351 19.119932 888.937866 
5.957408 15.724176 927.226196 
10.993348 15.389956 897.825867 
0.706263 25.930552 893.951233 
-12.317757 53.598198 863.780334 
28.609234 46.065239 923.036499 
4.503236 27.564234 890.757080 
6.831995 15.999701 901.815247 
-0.605918 33.535233 888.076660 
-10.681798 67.735336 855.516663 
-9.102313 53.774960 865.270203 
-8.729409 49.277428 868.415161 
-0.727826 54.680824 869.487610 
-16.527611 55.286686 866.928528 
1.827505 47.359219 875.604797 
20.502510 52.331379 903.857910 
14.928273 16.478449 921.199707 
0.052318 47.767193 863.052368 
34.021900 36.679291 920.225098 
-4.327842 65.141106 861.496826 
-11.909818 41.643528 891.829224 
29.152044 27.481812 884.925781 
19.411484 33.946133 870.503723 
-7.874140 31.928822 908.014282 
8.472053 32.245258 883.729675 
13.455480 16.050539 894.648438 
-8.573663 33.566326 899.109619 
-15.742122 43.034946 882.770508 
26.720230 41.579906 921.703552 
8.126184 15.979161 925.260010 
32.203041 24.380312 886.543945 
23.277218 26.267826 878.565247 
4.366272 26.345045 892.157898 
30.357573 18.632669 888.732788 
-13.225697 36.509689 893.887939 
4.007865 57.820053 854.291931 
25.497820 45.667561 925.369995 
22.039389 17.166264 915.745667 
12.872671 30.354315 880.303650 
21.340828 29.893206 875.268188 
29.955824 40.599285 920.009521 
10.928681 28.537283 929.147400 
-3.126791 60.541805 854.095947 
0.858871 17.675573 918.822144 
25.624611 28.211330 919.105774 
-9.568612 33.566242 904.590271 
13.427067 16.716618 893.241150 
-2.213177 62.049900 861.496887 
-7.123676 51.629513 865.913452 
9.969687 41.629608 863.033508 
13.465662 29.166107 927.350891 
-5.404724 64.447433 860.337341 
-3.941848 59.128590 862.496887 
13.545024 22.051987 886.620789 
21.445309 37.959309 872.397278 
-10.834178 57.505363 861.887024 
2.991196 29.902668 890.078064 
-8.869367 63.069332 859.870544 
-7.537157 43.440636 874.824036 
3.385785 44.102612 861.215027 
13.967962 26.564280 925.383545 
-14.605496 48.035656 872.385620 
-2.060162 51.734921 868.847290 
25.650290 11.522895 895.445007 
29.398890 29.259804 885.982971 
-18.117903 60.274227 867.114075 
-4.176922 66.703651 857.064270 
2.138245 22.022961 896.267944 
24.227364 45.950047 927.911621 
-1.149356 58.698971 852.138306 
-6.364573 51.197968 868.509705 
15.797784 50.682602 861.137085 
-21.946815 54.426975 867.995422 
-15.389659 51.054462 881.384705 
33.865707 38.368202 918.931702 
2.319736 42.043251 877.730591 
-10.643949 30.718914 894.162231 
15.405538 13.756834 899.114685 
6.859859 46.568653 859.422241 
21.259167 41.582401 871.877625 
35.241024 11.399740 895.819763 
7.923318 34.022793 882.259827 
-9.919076 47.425571 869.579163 
21.348507 39.654434 873.703247 
28.676941 52.026680 924.643372 
2.909250 34.456470 886.764771 
-14.923553 50.975422 881.685120 
-11.653775 53.096996 864.427551 
9.141186 33.124905 881.495972 
16.129660 30.929846 924.326294 
2.222239 34.005161 887.174194 
-17.188334 60.867611 865.668396 
6.234627 42.841496 861.475647 
-5.025539 50.115379 870.154236 
-13.798358 48.143314 870.247253 
-16.964413 61.807190 861.007996 
-13.107844 36.913998 895.902161 
-4.059860 26.589611 907.396179 
-1.133774 16.872211 920.239929 
-9.015277 43.510769 874.263672 
-13.152460 45.905937 886.892761 
13.356065 48.578182 858.851257 
33.912994 38.775749 919.518738 
-11.757784 61.819138 858.974487 
-9.120064 45.967999 874.023499 
26.846090 30.493624 879.406189 
-7.583262 30.361080 891.499329 
20.731905 33.147629 930.593262 
9.679130 31.798250 882.499329 
23.927616 12.285063 893.893494 
-17.922819 55.344833 868.187866 
29.505119 52.085068 921.905457 
-13.386547 45.514797 885.891296 
-2.476328 52.559540 868.098450 
11.979088 47.920631 858.755615 
30.096277 47.107750 920.390198 
17.076057 43.417618 865.315063 
25.494156 37.459343 923.397461 
24.959946 26.541971 877.614807 
-2.962973 66.413727 859.036682 
28.395498 15.589868 886.397156 
-4.504879 58.336857 865.209106 
-8.131570 61.127098 861.297913 
9.325611 38.059345 872.101685 
0.518644 16.412888 911.583618 
-8.936656 27.373995 899.127747 
-13.905189 38.345318 887.150452 
-4.898332 50.391476 870.912415 
-5.138706 65.246292 858.884460 
20.504492 18.855196 882.999573 
-8.006690 64.316460 860.188904 
-14.214876 51.108345 882.695984 
14.089334 16.201439 900.782959 
8.441426 13.432831 914.420349 
-4.638381 69.943161 858.901123 
9.670449 47.543995 858.711792 
-15.187167 45.438709 881.369690 
2.085069 29.919535 890.239685 
31.077948 30.391146 912.206238 
30.514566 31.267838 914.930725 
19.104126 30.124735 930.153137 
-2.564523 28.147434 891.319153 
32.877907 38.209621 917.782471 
4.975946 38.016567 882.825195 
-6.463135 30.283047 902.660278 
4.683847 57.099083 855.202454 
23.413006 35.993263 876.182678 
1.631494 39.740025 882.574280 
-11.265754 41.291115 892.828369 
-14.525352 55.606060 865.108948 
23.364676 29.219898 876.046997 
-2.117891 27.990572 911.917542 
23.010309 29.364790 876.556885 
25.174904 12.950877 891.390076 
-4.474517 50.363041 870.358704 
-6.694067 24.595333 906.618286 
14.635041 45.977810 861.005859 
6.300010 40.454678 864.120361 
3.812416 42.236599 867.401062 
-16.156151 57.813408 866.130249 
29.703316 10.800584 894.286011 
9.432562 28.892704 885.852722 
24.285000 36.108994 878.981628 
6.549264 17.014683 924.746216 
-12.453527 41.285847 891.064148 
23.179556 35.515972 875.784668 
6.678377 13.490161 910.989014 
-5.860863 54.447388 867.487976 
-18.597057 51.097836 878.975159 
15.943725 47.436047 861.792358 
-2.151792 54.663982 856.766418 
8.929167 13.905518 910.221069 
20.867455 35.287716 930.454712 
4.032623 23.189610 894.524231 
29.829876 39.087822 916.533569 
26.390619 23.929049 915.060425 
27.933903 23.600863 913.697327 
-12.700692 44.883923 888.266846 
11.392988 14.690642 899.149658 
24.926912 15.028030 886.797974 
-9.801949 38.345970 903.127319 
23.856428 35.881950 927.625244 
23.426926 40.260017 923.360229 
9.580875 18.926245 894.165833 
-12.762780 36.361694 895.902527 
-7.523658 53.030270 866.371094 
33.917095 37.004967 920.568237 
22.186993 30.865929 923.341675 
11.933543 21.767212 888.836487 
8.290988 31.380737 883.425110 
31.414965 44.556911 919.071228 
19.173100 28.359829 925.042480 
14.669410 18.509514 889.573914 
28.279011 52.836655 921.499207 
-0.062984 18.500479 912.900574 
16.208069 50.575603 863.805481 
9.168950 15.723397 901.164917 
-0.643173 21.893463 915.484253 
-14.061152 43.791119 883.701904 
28.392046 27.419611 883.979431 
-17.673719 61.387070 865.757874 
21.066347 28.268694 882.968018 
8.992768 28.602995 886.357056 
-11.573972 32.436382 892.828064 
33.873894 18.195528 890.587158 
24.022661 41.251991 922.754517 
32.664421 43.415268 921.804565 
4.727490 48.893856 855.192993 
24.676649 12.772883 892.164001 
30.418034 41.060734 919.812134 
-5.661654 52.388817 868.009094 
2.171554 44.014488 874.914917 
17.348131 17.685410 888.278015 
9.744694 14.215302 908.305664 
18.566780 31.553688 930.646790 
-4.174353 20.910381 903.551147 
8.610868 14.050920 908.738953 
-8.799091 34.744247 898.612732 
6.551155 14.204865 907.549316 
18.503231 40.947590 930.278503 
-16.259581 45.037422 885.041199 
16.543901 46.909088 863.199707 
18.371260 39.189285 868.138123 
22.032143 34.125431 929.813477 
2.388808 46.425426 871.328308 
23.912848 44.694901 926.790649 
3.053275 13.396750 924.749512 
32.433128 40.453403 917.523865 
0.275694 45.922127 874.142822 
25.784790 21.185930 880.732849 
6.837992 17.022377 925.528992 
0.659727 35.809872 885.901978 
1.143543 50.708046 866.507874 
29.789139 33.174870 894.108643 
-1.391827 48.907925 873.267090 
-10.271557 42.187622 875.623230 
2.440066 18.114120 900.098206 
20.660357 35.470039 931.033569 
-14.627359 39.773170 891.180115 
18.875622 41.164822 869.164856 
16.033361 18.962528 888.300232 
21.606712 15.959835 914.339233 
-7.078583 63.995197 861.013123 
-12.087316 58.593643 860.731079 
26.876514 50.538677 924.182129 
-13.260119 43.505943 878.175171 
25.932594 25.944721 878.552063 
-13.426234 36.336964 889.001526 
-7.660290 66.828392 859.431396 
26.827806 53.092087 922.247803 
-8.220544 33.860374 907.283997 
15.579526 47.494274 861.305908 
19.760859 41.945858 869.197327 
30.354549 24.998037 886.846436 
-3.031160 60.297619 854.215332 
17.306616 46.642162 864.083252 
-15.277239 60.200581 861.925232 
-2.394161 66.873306 853.089294 
12.581450 13.979609 899.480957 
-15.444064 42.454132 883.441650 
-3.513803 44.047352 876.650635 
25.881254 37.385231 922.879700 
-6.394817 30.797461 903.460815 
-0.569594 20.508394 917.286987 
5.982452 27.400368 890.316406 
10.942783 14.050681 912.992859 
22.456007 35.485394 930.353638 
5.992111 41.264305 873.074890 
27.200552 11.693198 890.182251 
-10.018793 42.453060 875.443054 
-15.250684 46.937473 878.269409 
35.930836 27.425196 914.555969 
-17.911715 57.346745 868.658875 
35.348869 12.598330 900.531860 
-4.767069 57.823383 862.878784 
14.755877 25.567411 877.363281 
6.958842 15.274013 904.810547 
33.951916 19.069595 892.461060 
-16.288691 53.091106 866.144287 
21.744768 39.434563 874.785156 
17.169960 48.486885 864.562683 
-2.281487 52.858604 860.703613 
-14.263200 56.271614 864.218323 
25.900963 31.901962 882.206482 
-15.550644 42.699265 884.005859 
-1.128955 59.942200 852.086792 
31.711309 29.989241 912.502197 
-11.644806 46.083172 889.059326 
-2.769588 65.459351 856.848511 
8.857539 19.715462 892.391113 
-4.105036 42.154091 878.105530 
28.581514 16.313999 885.851257 
2.065902 44.982334 859.740051 
2.718555 29.568192 890.353638 
-6.424912 36.756092 905.246582 
32.159279 14.499460 890.388245 
30.694397 26.712793 887.120239 
18.877716 43.019547 869.109741 
20.638418 40.289879 874.546814 
-14.194194 45.334976 883.114868 
1.225790 16.749788 904.382202 
20.387684 19.692989 880.854370 
-1.550946 44.610355 876.976563 
19.482395 23.760578 876.706848 
29.243532 21.410593 886.271362 
-9.957708 35.629646 904.141602 
21.801445 18.740669 917.874939 
3.714598 22.209679 895.634094 
6.524399 14.517355 924.619019 
-7.567321 65.320320 859.985413 
7.152638 45.447697 859.914978 
-0.290463 47.178284 875.048401 
30.074560 10.659296 896.238342 
0.524355 52.422543 866.686401 
1.668726 36.094944 885.615601 
6.567003 17.737728 899.422668 
-0.783875 58.907082 860.562683 
10.451574 24.185402 888.708740 
-13.581176 40.546112 883.628906 
33.298504 37.257984 915.301086 
-5.067741 56.314590 866.434814 
23.243124 34.832336 874.864441 
18.595837 47.645161 865.339783 
4.333259 19.040796 898.646423 
22.823128 35.006435 921.889771 
31.865192 24.048298 890.248047 
26.890175 27.039221 915.153809 
-2.698694 29.044643 890.608948 
-9.954120 57.710445 861.193176 
13.127862 28.458313 882.326111 
4.528702 42.402256 862.643005 
-18.647242 60.729256 866.269470 
0.915712 35.601601 885.998657 
11.720104 27.158434 884.562805 
4.030123 44.135418 872.671936 
17.774858 21.239807 881.278137 
13.586998 44.616154 861.492615 
-2.531235 61.605556 857.066223 
18.509426 37.056526 930.745056 
26.957363 12.360404 891.916809 
10.206291 17.167416 898.294495 
21.239550 17.898863 884.013184 
-14.032505 41.032036 883.587646 
2.673835 28.186703 891.779907 
32.675499 10.630458 895.075134 
-9.156018 46.259769 870.770508 
-0.262788 15.780303 913.324646 
-11.406824 43.757271 891.614990 
9.764082 19.665539 894.087036 
19.110270 35.213932 931.266052 
32.976082 44.984177 923.316406 
33.058540 13.442439 890.856567 
-7.841906 34.500622 900.808899 
15.577180 39.772961 864.856995 
-8.219781 30.105953 892.243591 
17.208849 18.670378 887.598083 
-0.927771 48.117668 872.464844 
15.637723 43.453545 869.717285 
-10.390877 58.511715 861.674927 
-10.787151 53.234303 864.904907 
33.053654 50.699802 923.069458 
16.247252 14.420944 895.670776 
-11.045179 43.953934 892.052002 
-16.707476 46.741783 880.531006 
2.289817 49.384720 855.788025 
33.681442 40.217674 921.476624 
0.855787 51.688023 865.258118 
19.594646 16.968903 886.342773 
-11.878776 50.647152 866.061218 
19.425701 39.011105 929.697815 
14.928399 26.389715 876.485046 
11.302176 50.462093 855.943115 
-11.257907 37.852566 883.945313 
19.330814 43.321739 870.274231 
13.235957 35.946480 875.999939 
28.303436 18.179804 884.012146 
-3.935960 56.846016 857.660156 
28.732002 34.450058 892.685730 
-10.640056 36.101551 902.955688 
21.351015 49.641357 926.721191 
36.038891 19.642153 907.396057 
-11.783484 37.826832 884.344910 
-6.677525 50.355469 869.681885 
0.849772 20.887003 896.954651 
-8.823084 32.875969 909.949585 
34.072380 37.367214 917.993469 
26.400723 51.606331 928.911560 
19.931593 42.716896 869.913269 
31.154865 27.151129 884.873352 
12.120241 31.240421 881.255798 
-3.074455 65.875465 853.809692 
25.029423 32.772427 878.441711 
-1.182384 47.936970 873.661560 
16.898508 48.368664 864.003052 
-3.358246 24.895456 910.014343 
17.312244 45.654560 865.690430 
17.427912 46.595554 862.799255 
-12.605053 46.327091 887.982483 
-4.564651 43.237373 876.771240 
12.119663 48.945549 858.129333 
30.726976 39.011139 918.924255 
33.627468 16.454578 907.590271 
-1.622877 51.141148 862.226746 
-0.661484 44.509411 877.148682 
31.405125 21.784224 888.388855 
-4.057301 20.677486 903.680237 
34.094070 36.673573 917.463806 
25.270365 48.338097 929.581299 
1.301786 45.355732 864.760132 
8.865765 15.437320 923.690186 
11.202836 15.338814 897.986084 
20.820995 41.747051 871.911133 
-9.982303 53.287777 863.633118 
12.696985 25.460447 886.954651 
25.580463 34.533440 928.214355 
-15.873700 58.140572 865.168884 
-5.150546 54.887512 866.860474 
19.860437 24.377018 885.297058 
-15.887573 50.000446 870.431519 
22.365471 38.336323 875.324646 
-1.079713 45.001801 877.560425 
9.396578 51.334961 854.087585 
-11.321726 43.405479 875.006714 
15.414184 48.574432 860.806702 
36.020103 29.077112 910.537415 
1.109323 42.437592 879.320129 
0.776157 38.902454 883.266846 
10.794815 47.932522 858.519348 
-3.052184 60.370758 858.023560 
21.591105 33.488094 873.487976 
32.125183 45.442196 926.513428 
24.682051 23.676159 916.162354 
6.501129 25.875452 891.130127 
13.234788 14.141509 905.526794 
-16.393866 60.722542 864.533142 
-11.314069 45.181473 872.595825 
-12.391500 59.196762 860.639160 
6.772764 25.785721 891.634155 
-7.592756 43.791824 874.347656 
1.485209 50.477871 855.613464 
10.397462 21.318150 894.516785 
2.462084 39.227547 881.561951 
28.196665 10.729483 896.809082 
15.438713 17.011801 892.793762 
32.846382 39.952000 919.089233 
-0.441092 55.126968 867.748413 
-0.266741 45.741100 875.841309 
21.163908 41.077034 872.966431 
-8.886759 47.955688 872.252502 
33.302116 39.923355 922.646790 
13.601876 13.621049 900.502869 
29.774046 50.744274 924.308960 
-2.440392 66.567261 854.702332 
5.802362 34.424313 884.722351 
-18.627203 52.238579 866.514893 
23.798040 38.233414 921.847534 
-4.668386 59.418819 864.989258 
-17.409618 53.828472 875.334717 
24.505594 27.387600 879.202515 
-12.321558 59.724323 860.763000 
22.729597 48.758301 925.127136 
2.717726 47.130676 875.106262 
-15.664655 57.944435 865.653992 
21.638451 39.172993 874.046082 
-17.392056 48.926022 878.516907 
-3.194437 46.998180 875.120789 
11.404658 29.840046 881.282898 
-9.525019 60.157475 859.510010 
12.172425 36.841003 866.082581 
-2.139212 67.048027 851.790344 
21.338734 32.428551 880.704224 
21.453867 41.850845 870.908630 
8.596172 29.447842 890.002808 
-15.870235 58.406734 863.969604 
14.209176 43.123528 862.138123 
-10.527278 36.634701 902.527832 
-10.607443 46.217957 870.982727 
0.897084 14.322270 920.758789 
3.117628 46.313828 870.906372 
34.391239 26.423300 911.441162 
-3.736287 59.876911 864.232544 
-2.146289 25.328615 893.304565 
30.564556 23.411482 911.591309 
-18.686195 56.247467 868.284180 
24.209612 46.466225 923.985962 
-1.717413 56.399597 853.977356 
15.434280 25.641914 929.004517 
26.558788 33.396877 880.528809 
14.173109 44.906242 867.784851 
1.919278 49.867306 855.046326 
-1.797800 32.746235 887.650879 
17.161522 16.796570 889.426453 
7.107340 17.207361 927.708801 
-5.887803 39.453640 901.953430 
-9.984589 34.205544 888.067932 
5.441701 19.381004 897.539307 
20.583351 40.245964 870.707397 
-9.063068 27.459162 900.064697 
-20.245527 57.593105 869.720947 
26.954456 21.090361 884.957458 
3.478519 44.544338 873.487000 
22.055874 38.990700 930.526062 
-14.688372 51.845737 881.470520 
-3.611970 61.911892 855.183044 
20.969883 42.582863 870.091614 
4.734650 42.977798 861.450195 
-19.705547 55.011730 873.835815 
32.442520 15.485156 907.940796 
22.969095 20.236805 881.029053 
10.088457 22.003092 926.977539 
-3.486230 20.418535 902.696777 
19.945869 42.940006 928.853394 
32.031605 48.721909 921.804016 
4.547201 43.207668 870.000305 
-13.634495 36.699783 892.576599 
-5.846333 29.642944 891.985657 
-1.495296 25.281597 915.238708 
-2.362619 64.059250 858.725891 
11.201388 14.105776 904.546204 
4.652983 47.465809 858.130005 
29.323439 28.478500 884.450806 
-5.318668 46.226219 873.240417 
-15.228723 38.319504 893.653137 
5.824453 43.368858 864.522522 
7.602859 39.865372 877.808044 
-11.213413 44.116829 891.690186 
-2.047687 27.881771 911.318848 
-14.315182 58.100857 862.605957 
11.649230 21.434126 889.785950 
6.595682 44.389915 860.983215 
-17.209372 55.883621 868.611206 
20.466600 12.587994 897.580627 
-1.218530 52.039799 869.991638 
17.199060 23.126030 878.617065 
-4.593530 38.764690 883.367310 
-5.496167 63.121319 861.474487 
4.488672 31.664213 888.757507 
23.126785 29.390129 919.016846 
33.637321 20.068647 891.199463 
3.504841 44.711399 873.116272 
20.740885 41.251835 873.006836 
12.538941 47.362549 860.018127 
-2.642720 62.055801 852.623047 
32.491402 32.436558 913.541199 
17.927027 26.214355 874.405518 
-2.643753 67.740807 855.122314 
29.866535 25.438585 883.520630 
23.380976 26.024960 917.774414 
19.011806 18.892670 884.183533 
-13.004682 41.696381 887.303528 
18.227240 45.801487 867.044617 
1.881140 13.520698 921.821472 
-1.476044 22.158981 911.707520 
11.863506 23.203085 888.505554 
25.310999 24.203594 881.628357 
-12.271198 40.480556 889.011292 
-0.340967 20.489189 916.809937 
30.575962 49.669762 922.351624 
22.270401 19.699228 919.134277 
18.563997 40.416515 873.948975 
3.877289 41.956356 880.214417 
11.033064 23.254505 926.100891 
25.092962 17.692352 889.098267 
-2.175206 64.619102 856.044189 
23.049553 44.970989 929.524231 
2.589429 49.355804 855.696228 
-11.486581 58.191040 860.614380 
29.840099 45.119858 922.479675 
-15.271569 49.966537 867.229553 
-1.582225 50.079994 860.101013 
17.295126 18.458763 886.639709 
8.692751 19.930208 926.652161 
0.204375 53.714260 868.494934 
-16.576571 49.426407 874.695557 
-5.370394 59.859043 861.401001 
13.129904 19.177523 890.212830 
19.054415 38.114563 870.049805 
-7.917545 65.712555 859.614563 
16.508890 56.225685 859.883423 
-10.434319 38.157574 895.491394 
20.642376 41.525368 873.151550 
19.236197 33.176064 870.534912 
22.364132 41.356937 924.428528 
-10.942184 44.683628 873.294800 
1.673850 36.832508 885.584656 
31.046156 18.027241 888.822632 
-11.310772 34.751114 888.896912 
4.674939 32.237148 886.822449 
22.701326 37.027020 876.287781 
18.587496 32.707825 930.040344 
33.049412 21.466564 891.477112 
16.805004 41.377697 865.194580 
19.271599 31.686953 872.699768 
8.991734 29.828859 885.350281 
13.804419 43.666157 862.040833 
32.443748 33.634926 914.500122 
26.370125 11.259722 895.596741 
4.943477 55.947296 854.335693 
1.485006 50.767662 853.828918 
25.922285 30.134861 879.876648 
23.494877 37.476593 877.579773 
-5.335462 36.529839 905.406555 
18.585867 30.540802 927.491516 
14.909941 30.509014 880.784912 
-11.827979 54.234676 864.105652 
-4.285912 63.768600 859.469849 
10.365613 27.191814 885.815796 
20.426645 17.379955 884.895874 
3.914423 48.437378 857.128296 
2.755500 58.944473 853.977234 
-12.400791 44.043812 876.447205 
20.595222 47.956650 926.797241 
27.621180 17.033033 912.237183 
20.520603 57.618961 859.954468 
-3.620668 22.620790 898.928833 
33.749313 36.649368 914.414978 
-9.186337 56.360237 863.874084 
-0.497758 20.356993 899.924805 
26.658625 29.892355 880.945068 
24.177233 33.219330 877.865662 
4.645197 32.432961 886.610840 
9.719089 41.328213 863.175232 
-7.881491 40.954388 896.340637 
-1.945662 57.660374 853.677307 
4.377875 18.761324 899.193542 
-5.081648 62.263176 861.707336 
-2.482964 42.878502 879.366577 
16.789267 47.190063 863.964417 
0.851711 18.021685 902.347290 
23.220755 49.524677 924.851135 
4.248013 57.537998 856.039734 
-6.648963 41.658600 895.684143 
-0.459228 20.184750 917.401428 
17.796118 43.260498 865.291199 
20.761620 45.538967 926.603210 
20.388746 12.953988 895.735596 
9.841732 40.513466 863.551758 
-3.570837 48.271973 872.674927 
16.947624 44.252987 864.969788 
21.794260 51.694447 925.728210 
9.280604 26.828932 891.734802 
-10.332588 40.344971 895.027344 
16.214499 37.513866 866.627747 
-15.857821 44.374489 886.824768 
15.463829 41.374275 863.850403 
22.809008 36.259117 924.801453 
-0.326606 59.142189 852.553223 
-2.535006 55.551956 856.129333 
-2.212362 59.314072 864.591431 
-10.342671 35.669128 886.434448 
24.571115 19.420292 882.054871 
11.268131 48.715187 857.999084 
9.188691 31.264948 884.470154 
26.073450 23.143105 879.789734 
1.076413 33.405540 887.703552 
20.832413 39.317986 927.108887 
2.253678 46.193390 872.338257 
-2.088255 57.932518 866.862244 
-2.438266 24.349863 904.374207 
13.018330 13.655155 907.162598 
21.730869 36.790752 872.249268 
26.289150 38.123867 921.914490 
-9.614218 31.983665 890.948608 
-1.915257 54.335236 865.367249 
3.562467 58.803776 855.662537 
-5.771284 59.367306 864.196533 
25.088360 35.536423 924.255981 
-9.143716 44.554646 891.676208 
-13.805314 53.717316 863.272034 
21.084967 15.733442 914.346436 
16.636362 29.435011 923.702209 
7.280602 40.068203 869.680481 
-9.189300 46.482166 870.589355 
4.718779 41.090351 877.169861 
-2.862785 57.056450 855.829468 
15.139545 32.344696 879.423218 
-0.113627 42.727692 879.748169 
-1.326853 24.902353 895.821838 
12.601342 22.199764 889.006470 
10.459394 24.650373 888.248718 
36.332752 12.887018 902.815186 
34.965057 15.187277 893.901917 
21.619593 15.284629 911.662964 
-1.125728 51.186295 868.022949 
30.301109 50.703056 925.103088 
26.426472 50.360256 924.858337 
-7.145273 50.538910 868.760498 
32.548687 22.015123 912.050049 
35.825817 18.333670 904.000427 
31.934866 30.219290 913.170837 
0.690289 62.160545 852.197876 
20.946915 36.952747 932.486694 
22.273256 12.829131 893.802368 
17.345310 54.103657 877.368042 
3.615729 42.557487 862.069153 
9.449022 34.843857 879.175903 
3.900342 38.577980 879.746216 
16.507372 39.471828 865.709961 
23.641302 34.064342 926.486145 
33.667679 36.449699 914.749756 
1.949889 55.698906 853.726990 
2.555449 58.105915 853.566833 
33.238388 17.387148 908.824402 
-7.433805 35.399582 902.327881 
7.807981 18.186047 925.776428 
-14.302368 39.786068 885.499756 
23.286795 37.606441 923.050293 
-3.085581 58.535202 859.571167 
-2.122141 19.244957 917.352173 
31.934790 40.113800 917.763000 
-4.265471 47.026657 873.110535 
-2.680837 58.538876 854.525818 
-6.868008 33.291275 888.356018 
27.327539 10.859885 895.924194 
24.839609 30.802298 878.153503 
-11.279742 41.681137 879.104065 
29.593134 38.838745 916.297913 
-14.498683 38.744606 887.743774 
