15.843 40.92 862.75
24.37 23.489 875.22
-16.941 61.654 863.36
32.805 14.159 920.79
-15.054 29.456 897.2
-6.8724 19.945 905.57
30.152 20.35 882.69
-10.333 51.999 865.8
15.021 7.4893 913.04
8.1764 7.2113 922.59
31.462 5.958 906
13.752 8.1905 899.15
14.285 34.837 865.75
33.783 18.669 931.02
-4.7998 46.748 873.04
6.2497 46.57 859.23
8.6181 27.487 885.34
35.347 4.2054 893.68
-10.146 46.942 869.69
8.0819 10.469 900.87
32.605 18.749 932.91
17.565 40.053 863.75
-2.8148 59.739 864.71
18.17 11.495 925.78
3.8402 11.565 901.89
0.48919 52.649 855.22
-4.9327 53.307 867.79
30.997 15.112 884.64
3.4869 42.157 864.13
14.442 30.822 873.86
-4.5964 62.852 862.01
-14.644 37.392 895.28
-4.2724 9.4143 919.23
22.413 13.115 883.03
9.4047 6.3566 916.54
17.459 8.6594 915.95
19.008 45.629 862.34
-2.5678 47.514 873.55
23.158 36.881 871.1
-8.8256 23.982 894.44
20.253 15.527 880.78
-17.441 56.062 868.72
12.157 18.074 891.15
20.325 7.5024 892.52
24.589 31.247 875.58
-9.1129 47.875 869.26
-4.2542 28.191 889.65
-6.2377 52.379 868.55
-3.6048 60.588 863.52
16.262 37.411 868.85
0.91399 48.899 872.97
-6.4445 20.055 912.81
6.9612 29.629 884.85
35.999 14.75 930.61
1.8812 37.849 882.85
20.886 10.165 887.71
13.245 18.697 889.07
22.599 10.894 918.26
33.663 9.2428 911.96
7.6407 17.037 893.87
27.446 19.767 882.14
22.188 24.168 873.69
3.5332 38.49 881.8
37.232 17.072 928.41
23.573 9.6076 935.92
6.2432 35.19 884.01
-7.8892 18.701 913.67
-21.005 50.933 880.14
-13.813 32.288 904.17
29.952 20.152 882.75
-12.506 64.512 857.7
-14.497 45.158 873.36
3.8921 5.9286 923.41
-12.94 30.713 903.8
0.84364 47.867 870.07
16.36 17.601 882.89
-8.1491 55.117 865.09
-16.882 33.266 896.53
4.8628 39.612 876.94
12.564 8.7614 898.66
7.4519 35.176 879.59
-20.91 53.63 872.21
32.391 4.1177 898.42
25.3 5.8952 892.15
33.849 17.076 926.12
9.2851 43.626 860.7
11.483 38.029 864.27
26.776 18.868 881.79
31.396 5.6709 900.83
29.832 7.4951 888.33
32.543 18.246 941.52
-10.117 60.398 861.39
23.633 6.5748 906.86
-3.5048 66.534 859.59
-14.102 43.228 876.41
12.646 16.828 888.38
-11.312 47.625 870.98
10.765 36.47 864.67
-5.2903 16.494 903.25
26.293 7.2077 889.93
5.7385 42.999 861.82
21.811 34.896 870.74
16.039 17.758 883.13
-18.759 51.537 865.42
-16.383 39.225 885.58
27.098 14.385 931.76
-0.98044 18.218 897.09
0.23633 51.289 865.06
-16.589 60.767 864.16
32.643 19.561 939.74
4.6667 19.466 895.76
-19.011 44.462 885.76
14.41 20.286 881.31
13.363 33.844 866.8
-7.5231 56.739 863.75
16.987 38.466 864.08
6.1017 39.953 875.18
-17.086 52.534 866.33
-5.6723 60.428 860.81
30.229 21.111 881.85
-15.753 38.811 884.61
20.655 20.625 876.2
-18.305 48.138 876.62
-22.166 53.944 868.29
10.91 33.613 867.21
-2.3705 69.109 852.22
3.3966 10.962 903.17
13.703 38.592 863.45
-19.186 44.041 885.09
8.6418 38.301 865.77
-9.1687 22.512 897.17
-1.3814 58.339 852.55
-14.595 40.368 878.96
-16.378 46.559 875.4
-12.378 34.412 885.27
4.2265 43.027 874.17
21.462 8.7511 918.13
3.5665 44.253 869.5
-17.004 33.041 898.25
10.288 51.067 853.73
5.3839 20.861 893.77
28.149 26.111 879.16
-15.498 34.896 887.54
-13.935 43.39 874.76
-15.829 35.079 893.1
21.387 10.076 887.78
35.311 8.9628 914.3
14.168 7.2928 910.04
34.032 15.494 925.72
6.6763 31.141 896.55
-13.141 26.292 896.92
-15.086 55.571 865
26.189 30.373 873.86
6.2013 6.4813 916.78
8.5782 6.9868 910.22
-13.091 27.858 895.63
30.461 4.6206 894.1
6.5231 35.191 881.1
15.112 31.421 867.51
-6.6542 36.189 882.91
26.731 23.891 879.34
14.861 45.834 860.28
-4.4855 44.751 875.12
22.039 23.211 874.41
22.737 16.797 879.55
4.1753 6.3778 915.76
31.595 10.461 890.01
21.613 8.5781 890.91
-9.3687 22.355 899.22
-9.4734 20.043 905.59
21.509 8.445 935.3
29.896 6.1359 903.24
-10.213 45.516 871.18
10.916 29.519 874.5
3.3941 6.4313 914.67
-5.076 56.22 866.35
-7.4193 65.912 859.93
-8.1994 23.667 912.05
-2.9279 68.13 855.49
10.499 20.069 889.04
1.3639 14.254 900.46
0.75069 24.1 892.91
6.0437 16.164 896.42
4.1906 58.22 856.36
6.2547 6.0254 920.25
-7.1466 39.279 879.47
7.4489 46.305 858.89
-11.613 43.336 873.82
10.732 46.259 859.2
-12.443 41.19 877.9
-6.5765 22.374 893.99
4.8807 33.168 895.33
-12.117 50.756 865.67
4.9146 41.77 862.44
0.21916 34.913 885.41
-3.1639 47.579 873.29
8.2916 43.13 861.25
25.825 21.758 877.02
-11.405 66.313 856.39
-3.9002 18.295 897.68
6.3509 38.025 866.53
35.079 11.291 921.9
-12.703 61.488 861.74
20.181 39.344 868.47
9.2895 32.667 877.89
-16.46 50.355 865.77
-5.9982 17.59 900.61
-14.885 43.216 877.25
6.8691 37.595 866.61
24.083 8.0756 889.45
21.669 31.208 871.09
30.148 9.9035 910.11
5.2796 8.1529 908.22
21.806 9.2793 889.02
-2.3644 63.25 861.19
21.555 10.625 921.78
11.81 8.0991 900.12
19.486 16.634 879.93
-1.7126 61.898 854.2
23.84 11.673 931.13
-5.3204 17.662 909.62
-14.518 52.43 864.34
9.7405 23.902 886.92
-19.816 52.31 870.76
6.4285 39.62 863.72
31.733 5.9025 900.55
15.161 15.091 886.86
0.076723 12.77 902.89
1.7512 24.168 892.55
13.883 27.837 871.27
20.675 31.255 869.44
-3.975 17.212 899.43
-8.3669 62.404 860.79
20.212 8.0192 893.58
-5.8988 50.936 869.18
-2.9237 16.982 899.39
5.1843 39.287 868.62
-14.054 36.274 897.13
-5.7986 36.327 882.92
-1.1925 48.043 873.03
-14.022 60.552 860.7
10.415 6.7651 912.66
30.067 22.537 881.2
10.607 30.391 873.75
-8.52 47.344 872.16
-16.645 41.79 888.15
17.4 41.507 863.05
-1.4409 55.797 866.99
-16.116 36.681 880.27
-5.1664 43.468 875.97
-1.4349 10.837 906.69
-0.7299 29.996 888.88
-19.552 51.112 866.44
19.628 40.388 867.28
10.304 49.332 856.12
9.5572 42.386 861.4
13.251 26.18 874.44
10.448 9.9315 897.49
19.706 26.731 871.67
-5.3911 58.103 864.82
1.9769 18.401 896.26
3.7682 37.938 882.72
-0.34657 56.864 861.59
6.2514 7.5862 909.57
-4.8101 62.108 862.07
5.6055 16.02 896.55
-8.7347 57.078 863.94
-11.723 25.669 895.24
-0.47437 53.294 853.93
10.092 14.498 896.72
-1.2693 59.067 851.86
15.51 8.9133 927.88
-1.7692 10.476 908.32
-2.5828 12.999 912.24
2.6463 17.389 897.28
27.941 14.908 938.03
28.431 10.058 887.09
19.789 10.294 924.59
14.246 12.203 893.07
-11.977 45.577 871.12
-18.247 51.997 864.97
22.964 31.088 872.02
-7.7696 47.718 869.67
12.778 14.286 890.83
15.422 9.0793 929.71
4.288 14.818 898.18
-11.746 27.859 906.53
19.057 40.206 867.79
-8.5088 23.738 894.12
2.3601 36.479 884.3
14.604 8.1542 904.96
-18.491 41.999 884.64
29.423 5.5687 901.01
13.397 46.264 859.99
14.955 8.0308 918.61
29.127 21.898 884.71
1.4355 27.303 891.15
-1.6996 60.723 859.46
28.567 15.317 939.28
-10.037 61.85 860.88
16.697 46.001 860.77
-12.695 33.734 884.7
9.2376 31.118 880.99
-17.498 37.922 878.39
14.49 16.344 889.3
5.3449 6.5129 918.2
0.47485 57.335 853.59
-3.0664 14.791 916.24
-19.851 51.609 866.25
29.846 4.998 895.34
23.792 10.8 939.66
16.629 20.711 880.11
34.703 8.7823 917.67
33.474 4.9121 893.18
-15.266 28.711 900.04
9.7307 50.838 854.02
-14.23 32.39 886.08
34.048 19.298 942.42
9.1278 9.411 902.12
-5.0392 18.923 912.91
6.6172 19.516 894.15
15.046 29.077 875.35
11.001 19.921 889.51
-14.853 35.148 897.05
32.761 15.065 886.49
-8.4467 54.186 863.33
-5.562 18.653 898.84
-8.2546 13.61 917.29
32.108 20.401 941.19
-10.562 22.681 910.78
31.004 14.657 887.08
-0.68448 48.876 872.23
6.0271 37.822 867.77
7.4507 28.298 888.55
35.673 15.282 930.61
9.9253 15.596 896.22
8.865 35.353 866.9
16.268 6.8277 902.85
9.7918 10.259 897.37
19.101 43.736 865.89
-13.32 30.286 905.71
11.264 7.2211 910.03
32.905 6.1401 890.06
30.96 14 886.97
1.0039 22.438 894.05
10.698 46.513 858.8
6.638 34.793 880.24
17.842 9.9129 930.71
28.659 16.389 925.47
-5.424 37.674 881.75
-7.119 55.915 865.38
27.326 5.7572 909.04
18.253 7.2579 931.58
-0.21575 57.601 861.95
0.28122 16.172 899
26.825 7.6829 888.17
-3.7098 37.981 882.25
33.908 6.8091 902.85
30.447 12.297 919.28
26.989 5.871 904.29
8.8017 39.581 862.77
-1.6388 49.075 872.54
26.608 12.835 919.21
31.259 13.29 888.13
27.198 9.1117 887.04
-2.6454 67.677 855.4
33.713 16.392 927.59
18.721 8.0014 913.8
32.321 5.7784 902.69
28.556 5.7666 899.82
-4.4534 57.283 867.28
21.835 5.4722 900.42
-1.0841 62.394 852.2
-4.6189 62.796 861.98
-0.21747 52.046 855.98
-14.104 30.146 899.03
-6.5023 25.665 891.13
7.3832 33.971 881.82
33.173 14.341 923.73
-19.151 49.939 875.92
33.56 9.4764 911.84
17.852 9.8828 892.53
13.032 7.2326 913.65
5.7782 38.666 877.75
26.499 14.136 885.25
28.285 20.709 882.36
-14.674 35.699 886.37
33.035 5.4558 891.21
22.932 11.124 886.28
-3.7536 64.538 852.32
-15.458 36.164 885.83
17.475 9.9532 928.58
7.9562 48.897 855.7
5.6073 32.891 882.87
29.521 5.1094 898.79
12.523 46.208 859.48
31.767 17.962 941.04
-9.581 26.8 890.76
-6.9081 55.203 866.01
25.507 7.6663 914.21
22.638 5.6188 896.07
-2.5866 9.5355 913.96
25.261 23.462 875.93
-2.0809 62.165 852.34
-17.592 40.863 884.41
-2.5164 26.389 891.25
-15.858 56.53 866.47
-2.079 15.867 899.01
11.198 27.456 880.34
-0.76829 28.337 890.08
3.4343 7.9394 909.49
-0.81283 10.021 907.95
9.1095 6.888 910.2
-4.7441 57.959 866.14
18.089 38.994 864.51
-17.358 39.225 879.01
31.142 19.611 884.34
2.157 13.005 901.18
1.3909 27.605 891.06
-9.2768 20.584 900.39
-12.607 30.023 903.99
-18.72 50.025 882.01
30.96 18.854 933.26
15.746 31.166 868.01
8.5594 22.628 892.51
29.395 4.9348 893.73
-10.541 34.732 882.8
-3.1028 63.94 858.16
4.6977 37.672 879.4
-3.9727 56.643 866.21
27.399 11.675 884.55
-13.36 34.007 900.71
-13.697 57.96 862.07
-9.0923 20.241 900.93
-16.345 34.827 889.5
-2.8275 63.841 855.21
26.67 13.009 926.49
11.22 46.969 858.33
13.246 48.889 857.04
27.178 5.0841 896.58
28.984 18.828 888.48
15.251 36.271 864.99
23.262 7.738 913.54
13.504 8.1736 927.03
14.361 19.06 885.32
33.755 7.3475 909.16
-1.884 58.304 866.03
33.197 8.8296 888.2
-14.705 33.694 887.96
19.003 9.8842 917.93
27.309 25.527 879.48
-18.408 49.634 874.69
17.025 13.307 887.7
13.9 33.218 871.57
9.9795 26.597 886.21
15.467 9.0019 895.13
-19.291 48.615 877.58
-2.6802 54.991 857.2
12.566 28.467 875.06
13.16 7.9756 903.31
28.445 16.217 924.74
11.251 7.8474 922.74
-6.3774 19.539 912.67
-1.6932 43.484 877.51
-17.517 38.772 896.04
-8.0917 43.326 874.52
19.783 30.769 875.02
-16.628 55.021 866.43
29.233 21.624 884.73
-16.96 38.974 895.95
10.81 10.958 896.4
32.939 15.088 922.92
7.4836 44.313 860.42
32.788 16.953 927.59
2.9335 45.232 870.6
15.481 15.634 887.03
-3.5939 46.571 873.97
13.485 24.666 875.81
12.952 44.231 859.93
9.4582 11.958 898.79
-3.0339 65.631 858.25
33.986 8.0172 910.13
31.872 6.0403 892.12
2.8667 7.025 919.73
20.036 39.402 869.27
-2.5158 55.336 856.2
15.878 6.4965 903.89
34.153 11.83 889.26
-9.1052 31.191 886.44
5.3837 50.266 853.93
-6.0775 20.362 909.72
7.1219 12.865 898.47
12.069 17.225 888.97
-6.179 44.254 874.38
18.173 23.188 874.17
2.8178 16.277 898.19
18.232 44.214 864.26
-16.681 44.758 887.73
1.0087 50.932 872.94
-4.4668 38.779 882.05
11.535 7.231 907.04
-5.2302 42.014 877.41
28.819 23.888 879.19
2.7799 31.808 887.25
-3.3703 35.777 884.07
-4.0395 11.083 914.8
19.245 10.294 932.03
7.283 5.593 924.76
-9.8754 36.963 882.55
-14.365 33.273 898.42
5.9506 6.3714 918.78
9.1103 33.332 878.64
-11.324 27.26 903.66
26.908 12.403 931.24
8.8027 32.37 883.28
-19.838 52.328 872.14
32.942 9.6374 911.44
13.611 7.2966 916.41
-0.89623 36.806 883.93
15.434 14.808 886.75
3.3222 19.146 897.01
32.521 3.8288 902.24
-14.202 39.7 879.45
0.059462 28.645 889.84
-6.3725 15.391 908.23
33.455 7.5384 905.4
-18.959 46.196 886.35
-10.734 25.854 908.39
2.3459 43.511 877.89
16.239 11.938 929.22
-17.685 37.546 888.37
-15.842 37.827 885.79
16.819 45.222 861.19
-10.13 54.475 863.74
10.972 10.203 900.11
16.14 33.554 867.23
11.206 8.2691 925.64
0.61728 49.649 873.27
-17.814 37.775 888.23
-12.405 50.261 866.47
-1.7164 9.4235 917.84
-18.611 49.894 873.49
-19.476 45.56 883.48
15.83 45.889 859.87
8.7339 36.982 867.19
13.13 36.542 864.78
28.028 26.334 879.03
-14 49.137 867.58
11.051 8.801 898.82
0.33995 51.327 866.99
-15.938 35.383 892.89
4.3706 15.64 898.09
18.838 25.198 878.58
13.647 36.543 865.31
-8.0566 62.302 861.07
-4.1313 23.568 893.16
28.871 22.621 881.14
27.086 6.0273 902.29
-4.7201 43.996 876.76
24.935 16.052 880.55
1.6731 52.733 863.11
-4.2624 48.973 871.53
8.6509 18.126 893.59
-3.4321 64.644 857.79
11.95 8.1764 902.03
24.553 12.438 885.89
-1.786 60.494 859.42
-2.2445 58.801 866.26
9.1526 33.344 877.29
-19.323 60.762 866.39
14.72 7.6209 916.15
-13.982 40.981 878.81
30.536 14.976 926.54
28.191 13.785 932.12
25.038 5.5571 895.3
-11.923 41.523 877.42
34.31 9.5137 915.58
23.641 7.305 890.41
-0.92605 52.047 870.55
18.969 12.606 927.85
-3.2404 65.023 857.98
16.396 42.259 861.83
-8.8055 57.545 863.61
-12.012 55.263 862.75
28.329 7.8236 912.16
7.6892 24.589 890.69
9.289 6.8832 911.32
29.728 11.081 886.92
17.127 35.661 865.76
3.0167 43.947 877.48
24.719 23.145 875.66
-4.0017 14.281 917.33
17.137 14.498 885.48
24.801 24.789 876.63
0.92671 9.475 907.34
9.2554 49.262 856.19
-21.598 53.538 867.06
31.91 6.3314 906.73
0.93149 47.095 875.79
12.296 7.9818 906.44
14.539 12.222 893.48
8.8121 26.225 886.12
2.1078 45.67 876.82
-18.422 49.201 876.86
26.82 26.849 879.48
-18.211 51.753 865.12
27.785 5.1301 893.94
24.362 11.818 934.82
2.4056 7.5665 911.08
22.606 7.9725 889.97
-14.278 60.848 860.39
-18.42 49.008 875.55
-3.245 56.677 865.05
-0.40274 62.302 851.94
3.468 10.273 904.42
-6.1909 67.151 859.33
16.785 7.3369 909.23
-18.904 46.385 885.99
12.553 6.039 918.1
23.612 6.7501 912.01
15.141 20.463 880.33
-17.364 34.827 896.53
22.82 9.4035 934.51
-1.713 51.098 858.78
4.4533 40.329 865.86
3.1603 44.552 878.45
-12.195 24.599 898.38
24.129 9.7036 886.46
-14.947 42.709 877.31
-1.7776 50.935 870.83
31.248 12.798 889.43
4.8921 14.126 898.93
-8.982 64.55 859.43
-7.0088 25.162 891.52
-7.139 48.51 870.13
24.817 12.819 928.09
-16.872 42.414 886.84
16.119 9.591 893.64
2.8565 7.3713 914.52
-7.2389 26.64 890.17
23.171 52.802 863.45
17.192 6.4296 907.71
-6.3483 18.49 907.3
-16.599 55.857 866.13
-15.235 54.965 865.98
4.8691 35.245 883.75
19.031 13.78 884.35
25.258 10.758 932.57
27.227 12.784 883.6
18.842 16.962 882.38
-7.0096 16.071 908.72
-4.9537 45.856 873.81
-10.636 35.338 882.19
-15.12 36.18 895.44
4.0668 50.508 852.84
25.357 5.4073 895.51
-18.054 37.008 891.07
23.122 10.707 934.29
11.927 48.146 856.84
-2.9423 46.166 874.72
28.906 24.944 879.57
1.3297 50.425 855.59
3.4666 58.446 854.13
-13.995 37.302 897.56
28.961 7.3092 889.15
-14.071 37.132 882.67
33.848 8.4656 908
-7.678 55.855 864.53
3.0263 49.824 855.03
-0.99205 54.417 869.34
-14.194 57.025 862.92
3.436 17.984 896.17
25.455 12.749 920.96
15.548 32.445 867.27
-3.4567 55.152 867.03
4.6612 16.779 896.16
-14.562 54.822 865.15
-16.358 38.528 880.25
-3.5084 9.5042 915.31
-9.3844 23.971 895.4
29.485 14.242 926.7
33.1 7.8086 906.59
-15.499 38.93 882.3
-7.862 47.43 870.32
5.748 11.461 901.27
26.902 11.881 933.79
15.7 13.939 889.92
31.519 6.5328 907.99
1.6082 17.375 897.36
17.017 9.5479 894.48
-1.4222 45.662 875.83
15.321 24.307 873.71
14.716 47.334 859.05
7.1333 24.211 889.73
-0.082222 8.3612 910.86
-6.1674 53.656 866.61
-6.3663 26.713 890.54
20.956 7.3161 892.25
27.607 22.217 881.18
35.249 15.741 930.58
16.527 6.3558 904.98
24.496 20.78 877.04
-3.3225 7.8695 920.18
20.701 11.854 922.87
26.328 11.298 933.26
16.471 8.6005 894.79
7.5667 21.365 891.28
-4.0073 13.478 905.24
-9.5797 58.773 862.5
-0.097036 18.194 897.34
0.58949 42.983 878.37
-1.9897 11.333 917.4
-1.0119 8.5939 918.52
-6.1298 20.49 910.42
-16.197 32.951 880.84
21.476 19.169 877.54
26.628 13.769 885.76
-11.821 30.117 888.78
4.0264 38.181 882.29
27.619 16.175 935.51
-5.4889 9.8385 919.14
-20.91 52.718 867.6
-11.443 65.888 856.26
-2.8808 47.641 873.31
6.1794 54.733 854.4
-0.97655 29.695 889.02
-0.90084 11.513 916.65
-9.7471 33.947 885.5
7.4406 37.91 875.46
-16.553 55.112 866.83
22.146 35.58 871.6
-12.522 48.401 870.08
8.968 34.448 876.22
-2.8157 55.579 855.67
-0.2389 34.438 885.95
-17.575 50.005 871.26
12.816 20.481 883.76
6.0381 44.077 860.4
-17.483 39.871 893.36
-14.037 36.912 882.86
5.273 8.6959 906.54
30.277 5.4007 898.21
