13.15 20.743 890.5
-4.8187 46.244 875.75
19.799 42.753 926.23
29.745 13.44 893.3
33.361 19.075 909.88
16.252 36.496 930.68
5.9641 53.431 854.14
31.359 27.329 887.89
20.873 42.393 874.5
-5.1715 45.138 874.68
14.727 28.882 925.14
18.938 27.049 875.69
31.251 27.529 892.37
22.464 45.056 921.16
-10.328 53.98 864.41
-0.25559 18.972 907.1
21.997 17.971 914.31
20.939 44.125 929.11
9.9493 21.584 894.24
21.403 53.681 920.43
20.255 46.663 928.8
21.791 23.791 879.08
11.845 26.167 886.61
21.446 25.545 921.44
0.33253 22.773 899.05
33.433 20.555 890.75
-0.12811 40.564 882.37
14.823 26.823 877.5
-10.626 52.148 864.13
20.565 14.89 899.75
11.399 32.926 928.47
1.3583 51.037 868.42
22.015 30.123 874.68
-0.77387 27.279 913.23
26.98 47.383 917.43
-0.68652 19.105 919.94
-8.18 64.517 860.75
21.849 14.498 897.89
14.619 17.923 893.81
10.388 27.666 886.73
7.496 15.568 913.14
15.903 25.516 879.39
-9.9348 55.294 863.66
-7.2389 38.975 898.66
-5.517 50.984 870.66
-4.7082 49.059 873.01
-6.6135 39.274 899.16
-5.5473 27.082 896.98
-0.81637 25.555 896.62
5.2234 30.294 890.23
19.605 27.579 921.55
4.068 39.971 880.87
-14.685 59.9 861.01
32.726 27.172 910.82
12.299 16.174 904.1
19.348 40.926 930.85
-5.5764 25.997 898.97
0.36083 54.331 856.04
-16.508 58.952 865.97
-7.7394 58.302 862.38
-0.017687 40.12 882.22
-4.4637 57.555 863.43
7.1389 38.215 879
31.897 26.633 914.36
9.3445 45.633 860.2
-7.6183 38.16 898.48
0.89272 26.263 893.89
-11.556 50.368 866.63
0.8858 32.656 889.16
-3.1426 60.993 864.47
29.632 27.11 885.8
1.6729 16.365 917.87
4.2841 15.834 912.69
-11.255 36.635 888.42
22.131 54.003 919.77
2.0402 48.964 856.29
-0.72973 56.732 866.48
-5.4628 39.304 899.87
21.19 44.327 927.2
34.107 22.098 893.84
13.237 17.672 904.72
19.128 44.833 869.3
17.578 17.312 916.52
-13.755 63.48 858.36
10.111 27.03 887.77
30.725 53.908 917.71
10.541 43.571 861.63
21.796 18.995 914.63
28.817 27.29 884.44
20.64 28.659 922.57
12.548 30.794 927.39
10.193 24.362 893.22
4.3063 34.434 886.89
24.141 36.253 918.66
-2.2076 52.589 868.14
-11.145 61.585 859.68
-1.2802 30.925 910.79
-4.2537 58.58 865.03
10.955 17.793 896.85
13.277 23.286 888.84
14.752 25.105 891.53
28.447 48.943 918.91
-1.8119 32.573 911.34
-1.9102 22.685 900.21
10.715 34.501 881.33
18.926 44.707 871.38
23.554 42.855 922.07
10.606 45.112 860.72
8.9958 36.665 878.44
18.458 44.429 866.23
28.303 26.177 884.44
-13.841 48.193 869.44
21.099 56.272 919.86
26.523 34.95 884.39
-11.589 52.21 882.71
-2.1666 50.468 871.5
-6.0238 40.966 896.66
33.615 41.411 918.7
-3.8892 64.077 862.46
-8.7547 49.407 887.24
10.06 38.891 864.83
-13.845 60.027 860.08
16.545 15.912 897.5
-14.314 56.908 864.22
0.33709 31.913 889.02
28.905 19.664 888.56
0.61243 41.712 880.4
38.21 16.511 903.41
29.279 19.098 889.87
7.5417 39.37 876.2
28.065 32.281 883.92
0.66474 48.574 860.1
-9.5083 60.917 859.7
22.429 30.708 921.19
6.2477 37.348 881.44
-17.316 51.831 865.8
6.407 51.899 853.3
8.4093 40.025 863.72
14.522 50.409 860.04
23.846 28.363 918.82
-12.317 49.662 867.75
-15.997 58.304 865.58
3.1171 47.714 857.83
29.3 26.641 885.45
19.387 18.619 917.54
-7.9926 37.632 884.83
11.683 18.301 897.51
8.5655 37.018 867.44
29.212 31.016 890.66
-2.5454 35.581 908.89
3.7398 45.923 871.75
19.031 28.066 923.02
22.209 38.707 927.65
-18.038 54.642 868.09
0.9539 52.564 855.46
-16.13 54.44 866.34
7.9355 29.427 886.9
7.7954 46.104 859.66
-2.5857 61.758 852.73
-16.297 61.259 862.12
18.304 21.334 882.67
26.479 31.708 881.12
22.219 39.298 872.7
17.83 45.637 927.6
-15.748 61.556 862.96
-12.372 59.34 860.6
20.767 51.057 921.15
27.824 31.929 916.77
-3.1472 60.808 856.77
-1.9668 43.349 878.31
3.771 58.163 854.41
-1.3212 50.579 870.11
25.277 43.938 919.03
7.3459 31.695 887.56
-3.9527 35.152 905.65
26.308 32.704 879.54
-14.793 51.483 880.43
-5.5489 40.279 882.41
-5.8886 64.44 861.43
-5.5104 41.608 878.21
14.088 29.758 874.73
12.504 48.208 859.07
0.93583 58.028 859.73
-3.3984 52.874 869.64
1.2037 50.569 854.21
13.039 20.945 895.01
31.913 42.658 920.07
-2.8081 51.328 871.12
-11.004 48.917 886.16
23.012 43.77 922.56
3.6757 55.127 853.56
1.3557 44.408 875.82
12.883 26.994 884.61
21.482 41.306 923.97
-3.7859 37.983 882.59
23.838 13.924 899.53
7.5298 33.792 886.19
-13.684 47.829 872.62
1.4334 58.945 852.6
-13.946 49.959 882.22
-5.7393 28.491 895.11
-0.074982 57.372 853.03
-14.844 51.042 880.88
21.279 31.099 873.69
-0.59783 42.549 880.54
18.699 35.957 871.19
10.822 17.996 896.04
22.233 26.764 876.59
-8.7783 36.513 902.16
-8.5061 45.25 892.38
-0.23431 24.689 918.33
11.093 15.888 919.44
-6.6881 51.921 869.38
-0.72312 29.694 915.2
23.884 25.525 920.07
13.184 31.376 927.23
-16.647 51.281 866.38
5.3571 46.591 859.3
-7.8955 47.52 870.3
1.8897 58.043 854.11
6.0819 22.865 895.44
-14.321 50.345 869.16
25.932 45.045 919.32
28.82 30.46 884.79
-16.787 52.308 866.44
22.068 38.981 872.83
-13.857 48.303 883.24
24.78 18.241 889.8
-5.0708 58.405 862.45
27.502 26.148 883.87
-0.23182 24.121 914.21
8.8863 35.083 880.84
-6.6375 57.91 862.61
25.015 28.31 880.34
-13.636 60.611 859.84
-14.23 50.704 881.63
10.259 51.367 855.44
3.9384 42.826 879.79
0.48356 48.334 873.45
20.973 32.165 921.02
-3.8773 61.982 863.06
34.335 14.425 903.24
19.021 34.131 873.08
30.1 40.781 914.7
20.728 42.8 873.34
3.2555 48.743 856.26
-3.447 59.773 859.11
13.101 42.275 863.3
6.9057 15.821 916.85
20.823 28.285 875
-9.5156 49.794 885.78
37.706 27.114 907.59
2.1874 42.752 877.3
1.0052 25.497 894.31
23.379 48.439 920.75
4.8968 24.747 894.55
24.968 39.16 922.58
-13.245 39.372 886.55
33.589 22.756 888.81
-7.8141 39.856 897.03
-13.566 50.198 867.25
2.084 41.076 881.46
1.0844 17.958 910.87
-8.9826 52.863 866.02
12.568 28.164 883.77
-9.9143 53.175 865.19
-1.9023 41.02 880.92
34 21.812 894.39
24.679 29.893 877.55
9.563 36.283 868.22
31.02 35.488 912.87
27.038 51.398 916.98
1.0808 19.785 915.44
28.207 13.161 894.83
18.843 50.124 924.27
34.296 40.279 915.53
8.1855 36.299 879.77
35.921 30.466 910.11
4.8422 38.422 881.36
14.893 31.394 928.56
36.225 11.927 894.83
-7.955 42.284 894.59
37.429 27.038 912.41
16.288 39.997 867.71
33.98 21.039 890.57
8.4759 16.562 906.86
-0.51496 52.16 856.12
21.553 45.947 921.72
-3.3738 63.16 852.64
38.24 31.961 910.3
10.291 31.114 883.38
29.262 30.829 883.15
-3.472 49.422 871.83
25.595 51.79 918
5.6749 46.445 859.53
-0.55819 51.41 871
-11.028 45.245 889.35
-13.535 51.017 882.92
-8.3934 62.836 860.3
-5.2103 26.072 898.13
11.135 19.478 896.51
31.913 18.184 891.14
-3.277 64.057 853.11
17.102 29.562 923.59
-13.322 46.065 875.72
-14.271 49.155 868.86
24.832 17.037 890.14
27.655 34.149 882.35
1.3811 15.707 922.9
25.005 31.135 884.24
2.2617 21.023 898.65
21.314 17.238 881.96
10.879 35.4 867.85
-4.8451 64.566 860.92
32.945 21.793 912.08
23.686 39.998 926.01
-6.7916 35.735 901.35
4.1664 44.395 878.04
-7.2687 39.759 898.09
-18.402 53.439 865.68
-7.5572 58.84 861.53
1.3454 34.922 887.02
12.097 25.87 886.49
5.4372 25.027 894.34
-3.9309 28.401 904.28
7.7296 43.393 867.73
11.624 17.032 898.12
-1.8827 50.487 871.02
-22.086 55.4 867.9
-6.6441 57.822 863.03
-4.875 60.898 863.43
6.3274 39.376 879.24
-2.0184 62.28 854.72
23.184 14.859 893.47
6.8375 38.927 878.69
13.96 27.992 927.52
27.247 56.156 917.43
31.957 30.317 912.17
-2.2636 51.521 871.04
1.6601 49.52 855.64
-20.594 53.526 868.87
24.928 35.33 881.77
-8.1748 39.935 896.71
9.2035 50.759 851.98
5.177 42.191 875.19
-4.2471 50.671 870.29
-8.9985 46.805 889.63
10.43 28.597 886.11
6.2033 39.257 878.29
-14.199 50.5 866.81
14.33 43.913 862.76
-1.6168 51.995 858.19
-3.8794 60.359 861.27
6.5511 17.4 925.76
12.93 29.609 873.4
36.088 24.362 888.21
-1.4838 57.319 866.22
6.9426 35.82 882.59
-8.338 29.972 901.48
8.7504 18.221 900.26
27.88 18.304 912.5
0.25797 34.699 887.57
7.8674 35.962 881.75
25.824 31.8 879.12
23.754 37.482 875.78
7.957 18.395 925.63
-0.31329 45.911 876.11
36.109 17.447 893.75
6.6962 37.526 884.04
13.66 28.665 875.79
-8.0234 38.94 897.71
1.5868 19.785 900.84
-11.24 41.287 888.56
-7.8617 43.689 877.42
1.6264 48.784 867.18
-0.46747 23.445 893.12
25.553 36.239 882.37
37.573 26.758 909.42
28.325 27.093 881.3
33.116 44.221 917.24
-2.6375 32.904 894.63
0.012313 39.922 882.42
-9.7534 37.314 892.4
15.073 57.578 873.02
0.33504 39.705 882.56
19.096 48.807 924.13
17.935 26.905 922.48
-1.2504 56.095 868.18
-11.649 39.454 884.67
-3.7058 57.186 865.82
-10.104 50.669 885.43
1.5077 54.569 853.54
6.7333 40.077 876.91
-12.808 49.067 868.49
-15.923 49.812 872.19
28.675 29.394 884.16
32.129 30.485 913.49
1.2291 20.133 899.13
20.944 43.899 870.09
4.3082 19.061 901.31
13.952 21.277 889.46
-15.667 37.093 893.75
35.722 30.784 910.24
-1.2679 59.393 853.78
-1.2272 57.631 865.95
13.466 37.873 866.68
-6.006 53.429 866.42
-11.67 56.626 861.87
24.133 19.96 883.23
32.172 31.986 913.02
-3.1748 31.838 908.2
34.109 22.115 911.33
-5.9567 67.769 858.27
3.611 16.341 909.97
24.254 40.101 919.29
3.0234 46.193 871.08
-7.7822 28.265 897.81
1.041 53.291 853.89
26.876 27.073 879.74
-13.256 46.412 874.98
4.9928 29.988 890.52
25.358 24.669 882.87
21.929 43.537 923.25
16.988 24.219 879.5
8.1511 39.906 877.36
8.9153 38.622 864.71
-12.169 40.659 883.36
-16.156 60.39 864.41
21.571 41.98 876.74
19.823 19.069 917.83
10.736 42.272 862.8
6.8424 16.316 918.23
9.9566 27.844 886.22
38.111 18.563 903.28
-5.106 43.576 893.28
3.5583 55.743 853.79
25.002 49.386 918.74
26.132 13.572 895.54
3.9921 44.513 870.37
-3.5913 42.494 878.48
25.92 37.327 919.67
-9.6588 55.424 863.77
21.375 45.692 922.67
-0.069658 22.169 919.58
2.642 47.38 870.06
16.99 49.588 866.14
16.453 55.993 876.29
9.0758 25.966 891.28
14.927 37.998 866.57
-5.5126 61.267 863.86
-2.375 36.375 884.48
23.87 25.567 920.45
12.947 17.147 897.14
-2.1502 36.813 884.06
19.321 17.985 889.71
1.0511 17.671 916.31
26.194 40.493 918.96
3.1901 15.802 918.68
22.938 31.674 875.88
13.449 18.194 904.4
5.1425 39.103 883.07
0.99784 19.709 899.13
24.577 41.058 921.46
-3.2706 56.826 865.39
5.8271 38.332 883.67
12.429 21.118 891.38
23.357 51.88 921.23
17.699 48.609 868.56
26.972 49.74 918.93
7.6843 41.072 876.58
36.968 16.692 904.34
-1.7662 61.216 859.22
-0.14119 58.9 859.39
36.245 12.973 892.89
15.899 39.378 866.22
27.98 50.471 918.13
24.928 22.573 880.72
-1.8204 34.048 908.69
4.3031 43.742 861.11
27.68 32.398 883.4
36.15 31.413 915.56
9.4638 38.915 864.5
-13.215 51.662 865.3
22.703 36.246 880.88
-0.80977 60.588 853.06
23.279 42.065 925.8
25.939 31.279 918.42
3.8743 41.28 880.21
30.39 34.074 913.52
-0.1866 21.32 920.45
7.2741 36.983 895.05
26.571 15.789 890.81
-14.742 50.083 869.68
-3.3921 62.861 863.03
-4.1213 62.782 859.47
-11.169 57.713 861.8
2.7268 21.737 898.97
-17.344 58.743 867.62
19.056 46.881 868.19
29.579 35.525 913.57
14.814 23.066 886.76
-6.2149 55.987 865.24
-18.492 49.329 864.28
20.131 32.903 924.11
-15.36 50.939 877.72
-14.119 44.501 880.18
-10.696 33.029 895.91
26.855 33.469 881.73
-7.7619 39.149 897.91
15.194 30.88 925.45
31.728 34.768 911.95
-9.4779 50.398 886.33
-1.1785 63.817 851.16
3.6587 16.24 913.65
-6.732 47.643 871.16
-1.5997 50.808 859.56
5.2674 41.578 875.34
23.72 27.562 921.38
-5.2516 38.449 901.92
-6.5003 44.204 874.7
23.135 52.678 922.37
19.094 43.235 870.77
27.434 31.546 917.17
8.4944 18.963 899.23
5.3516 17.969 903.37
-2.551 37.697 906.78
35.264 15.558 891.6
31.066 43.638 913.1
-10.816 34.047 896.59
-6.813 62.634 862.05
20.392 41.651 870.05
23.177 50.394 921.45
18.876 30.915 883.37
1.8713 23.598 895.95
27.898 49.381 918.77
20.696 35.614 921.21
-1.5155 60.768 859.48
10.434 26.61 886.93
-14.312 52.511 865.95
28.591 20.404 887.77
22.849 28.54 878.01
